ply
format ascii 1.0
element vertex 1557
property float x
property float y
property float z
property uchar red
property uchar green
property uchar blue
end_header
-2.428 244.568 1.541 108 106 119
-2.291 244.723 1.535 106 103 114
-2.164 244.889 1.525 98 95 106
-1.992 245.089 1.514 84 86 101
-1.837 245.231 1.507 87 89 102
-1.679 245.372 1.499 83 82 96
-1.521 245.517 1.49 84 83 97
0.611 246.297 1.436 64 70 82
0.826 246.278 1.437 73 77 89
1.038 246.296 1.432 64 67 82
1.25 246.31 1.426 67 69 82
-2.107 244.273 1.549 102 100 114
-1.983 244.414 1.543 103 96 112
-1.865 244.564 1.535 90 88 102
-1.677 244.709 1.531 91 90 104
-1.556 244.861 1.52 90 90 102
-1.404 244.976 1.515 86 85 99
-1.259 245.104 1.507 83 85 98
-1.108 245.227 1.498 82 80 94
-0.965 245.37 1.485 94 90 104
-0.819 245.518 1.471 86 86 98
-0.644 245.613 1.464 86 84 97
-0.485 245.754 1.449 79 78 92
-0.302 245.846 1.44 74 76 89
-0.11 245.914 1.434 77 76 90
0.066 246.052 1.416 74 76 89
0.268 246.097 1.411 74 73 87
0.463 246.197 1.397 73 71 84
-0.638 245.134 1.488 0 0 0
-0.488 245.243 1.477 0 0 0
-0.335 245.352 1.466 0 0 0
-9.411 250.992 1.693 134 122 122
-8.315 251.583 1.677 142 126 127
-7.681 251.97 1.664 145 127 125
-6.289 247.047 1.776 145 127 127
-4.431 243.047 3.943 82 76 78
-4.422 243.309 3.961 84 82 85
-4.45 243.05 3.814 95 89 93
-4.446 243.314 3.832 92 88 89
-4.487 243.06 3.758 92 83 84
-4.441 243.311 3.762 81 75 79
-4.481 243.057 3.689 85 81 80
-4.457 243.315 3.699 97 90 97
-4.48 243.055 3.622 71 62 65
-4.429 243.304 3.625 100 95 99
-4.492 243.056 3.493 110 100 98
-4.468 243.315 3.501 123 117 121
-4.477 243.05 3.425 49 42 50
-4.437 243.302 3.428 105 94 100
-4.506 243.058 3.365 99 93 97
-4.412 243.292 3.357 82 77 81
-4.518 243.06 3.302 54 48 48
-4.435 243.297 3.232 92 85 92
-4.523 243.059 3.173 90 81 82
-4.402 243.284 3.161 93 84 87
-4.528 243.059 3.109 34 31 38
-4.427 243.292 3.101 109 104 101
-4.542 243.063 3.047 62 53 58
-4.42 243.288 3.036 105 96 99
-4.537 243.058 2.918 109 100 103
-4.442 243.293 2.911 101 90 96
-4.561 243.065 2.857 30 30 40
-4.428 243.353 2.847 132 121 125
-4.568 243.065 2.793 68 58 59
-4.429 243.352 2.783 96 86 87
-4.568 243.064 2.729 41 38 47
-4.419 243.347 2.718 111 102 103
-4.59 243.068 2.603 33 38 58
-4.418 243.344 2.591 119 107 107
-4.594 243.068 2.539 124 110 109
-4.433 243.348 2.529 132 121 125
-4.609 243.072 2.476 25 41 64
-4.404 243.336 2.464 119 107 111
-4.34 242.732 2.343 95 114 129
-4.576 243.059 2.347 75 70 76
-4.404 243.333 2.339 80 72 70
-4.341 242.732 2.283 80 102 99
-4.622 243.072 2.285 45 52 70
-4.406 243.333 2.276 126 114 118
-4.612 243.067 2.22 48 52 61
-4.401 243.33 2.213 136 117 119
-4.566 243.671 2.21 128 116 120
-16.804 236.816 2.281 115 109 113
-17.171 237.534 2.274 113 110 119
-17.736 238.443 2.264 116 114 125
-4.275 242.711 2.162 78 94 94
-4.635 243.073 2.157 130 119 123
-4.38 243.32 2.151 128 119 124
-4.458 243.624 2.145 107 98 101
-4.269 242.707 2.044 83 94 96
-4.55 243.044 2.03 108 90 90
-4.335 243.301 2.027 103 92 90
-4.398 243.596 2.017 101 86 89
-10.502 242.964 1.805 81 85 97
-4.364 242.731 1.981 87 106 110
-4.549 243.042 1.967 113 101 101
-4.312 243.291 1.966 105 93 93
-4.338 243.569 1.956 115 101 101
-6.331 244.783 1.866 108 96 98
-5.99 245.094 1.862 151 132 134
-5.686 245.312 1.861 141 125 128
-5.445 245.555 1.856 146 140 142
-7.943 238.475 1.832 17 32 61
-8.251 238.809 1.821 20 34 60
-8.14 239.25 1.825 37 52 71
-6.249 242.258 1.861 168 157 171
-6.384 242.602 1.848 144 137 145
-6.48 242.954 1.835 141 128 135
-4.43 242.748 1.917 86 107 108
-4.508 243.028 1.906 132 111 108
-4.31 243.289 1.904 119 101 97
-4.325 243.562 1.894 109 93 93
-4.825 244.074 1.857 84 72 74
-4.84 244.396 1.843 150 135 138
-4.701 244.729 1.833 137 125 127
-4.648 245.037 1.821 147 131 131
-3.436 240.553 1.899 191 166 169
-3.344 240.76 1.904 162 131 128
-3.537 240.989 1.89 180 150 148
-3.638 241.187 1.882 174 144 136
-3.725 241.392 1.873 153 128 124
-3.778 241.656 1.865 148 124 120
-4.067 241.903 1.842 181 160 157
-4.386 242.242 1.814 154 133 132
-4.168 242.437 1.82 167 147 148
-4.102 242.658 1.817 172 148 148
-3.973 242.859 1.817 145 125 124
-3.869 243.063 1.814 142 118 118
-3.991 243.42 1.792 166 142 138
-4.078 243.721 1.773 153 134 130
-4.098 244.007 1.758 151 132 134
-3.932 244.2 1.756 140 124 125
-4.167 244.721 1.715 141 117 117
-3.19 241.56 1.855 141 117 115
-3.108 241.782 1.856 179 153 154
-3.195 241.981 1.844 143 118 121
-3.228 242.179 1.836 144 125 119
-3.388 242.467 1.814 166 144 147
-3.568 242.731 1.792 156 136 145
-3.427 242.903 1.794 160 140 142
-3.358 243.153 1.786 159 143 144
-3.367 243.386 1.774 127 110 116
-3.453 243.669 1.753 153 134 136
-3.503 243.952 1.734 136 116 115
-3.093 242.989 1.762 149 128 133
-3.094 243.257 1.747 154 134 135
-3.036 243.451 1.74 146 130 130
-3.004 243.664 1.729 155 136 140
-5.262 243.963 2.214 120 108 110
-17.613 237.445 2.276 130 119 123
-7.749 246.035 1.787 115 133 145
-5.952 243.235 1.846 147 130 136
10.988 258.614 0.997 175 169 181
12.653 256.661 1.022 155 139 142
13.586 256.535 0.99 140 120 119
14.723 255.339 0.992 126 108 108
15.05 254.519 1.011 143 127 130
8.561 257.326 0.958 107 107 119
8.83 256.221 1.011 127 124 133
9.141 255.336 1.049 153 150 161
9.427 254.51 1.083 136 130 134
9.744 253.812 1.107 60 60 70
10.054 253.162 1.127 72 72 82
10.902 253.22 1.084 151 154 173
11.117 252.486 1.111 182 181 199
11.606 252.088 1.106 173 169 184
11.939 251.535 1.116 171 167 181
12.314 251.034 1.119 178 177 195
8.166 253.606 1.037 73 76 91
8.458 252.948 1.066 74 80 92
9.939 253.007 0.987 155 115 115
10.2 252.353 1.012 153 137 148
10.472 251.755 1.033 153 150 161
10.696 251.14 1.055 159 157 170
10.936 250.573 1.072 116 116 124
11.057 250.111 1.09 91 86 92
1.399 250.903 1.363 71 73 85
2.099 250.78 1.358 70 73 90
5.327 251.358 1.197 75 79 90
9.454 250.027 1.064 73 76 93
9.663 249.524 1.082 72 77 96
9.883 249.054 1.096 80 87 105
1.282 249.558 1.302 72 75 84
1.623 249.401 1.311 70 73 82
1.968 249.405 1.302 69 72 81
2.316 249.416 1.291 71 74 83
2.661 249.382 1.283 55 64 79
3.048 249.521 1.255 74 76 89
3.394 249.439 1.249 73 75 87
4.187 249.546 1.203 73 76 93
4.599 249.575 1.179 70 72 87
6.038 249.23 1.127 72 74 89
6.524 249.254 1.093 76 78 91
7.8 248.266 1.082 78 78 90
8.087 247.98 1.081 70 72 87
1.271 248.414 1.346 66 73 83
1.567 248.323 1.35 73 71 84
1.863 248.289 1.346 72 74 87
2.164 248.3 1.336 74 78 90
2.464 248.28 1.328 71 73 85
2.81 248.456 1.294 72 74 86
3.085 248.283 1.302 74 76 91
3.413 248.31 1.284 74 76 89
3.69 248.397 1.26 74 76 89
4.039 248.416 1.24 74 73 87
4.342 248.3 1.235 68 73 92
4.701 248.296 1.213 70 73 88
5.01 248.171 1.206 70 72 87
5.352 248.097 1.19 71 73 85
5.64 247.922 1.187 68 72 84
5.998 247.843 1.167 71 72 90
6.289 247.659 1.162 74 76 89
6.469 247.472 1.165 200 204 231
6.806 247.334 1.148 73 75 90
7.165 247.202 1.128 78 77 91
7.313 246.857 1.144 76 78 93
1.525 247.502 1.378 68 71 80
1.788 247.494 1.372 69 71 83
2.053 247.485 1.365 71 73 85
2.317 247.464 1.358 70 72 84
2.597 247.5 1.343 71 71 81
2.798 247.472 1.337 72 74 86
3.065 247.423 1.33 75 74 88
3.346 247.406 1.317 62 70 81
3.67 247.483 1.29 77 75 88
3.949 247.416 1.281 77 75 88
4.261 247.408 1.261 63 70 88
4.538 247.312 1.252 73 75 88
4.737 247.221 1.248 73 75 87
5.027 247.132 1.235 73 77 89
5.301 247.009 1.226 71 74 89
5.521 246.809 1.228 71 73 88
5.709 246.573 1.236 73 75 90
6.057 246.518 1.209 188 142 145
6.263 246.3 1.21 70 74 86
6.494 246.104 1.206 75 77 92
1.491 246.85 1.401 67 71 82
1.728 246.855 1.394 66 69 84
1.96 246.809 1.393 70 72 85
2.204 246.833 1.38 59 68 83
2.377 246.785 1.38 67 73 85
2.636 246.84 1.36 74 74 86
2.875 246.793 1.354 73 73 85
3.12 246.757 1.345 74 74 86
3.362 246.704 1.337 76 75 89
3.613 246.66 1.326 76 75 89
3.804 246.627 1.317 78 77 93
4.081 246.613 1.299 78 78 90
4.299 246.479 1.298 75 74 90
4.564 246.419 1.283 65 72 88
4.839 246.359 1.266 76 78 93
5.032 246.178 1.269 78 77 91
5.185 246.054 1.268 78 78 90
5.378 245.877 1.268 77 79 94
5.66 245.791 1.248 222 223 254
5.844 245.597 1.248 73 74 94
2.26 246.233 1.404 74 78 89
2.489 246.265 1.388 77 79 92
2.704 246.224 1.382 77 77 89
2.938 246.234 1.367 73 73 85
3.105 246.204 1.361 75 75 87
3.309 246.114 1.359 75 74 88
3.523 246.045 1.353 77 76 90
3.751 245.998 1.341 80 80 92
3.976 245.933 1.331 75 74 90
4.133 245.86 1.326 75 77 92
4.384 245.819 1.308 80 79 93
-16.432 236.115 2.288 67 72 66
-16.804 236.816 2.281 100 94 98
-17.171 237.534 2.274 104 101 108
-17.849 235.704 2.297 127 115 115
-17.613 237.445 2.276 104 99 96
14.723 255.339 0.992 139 121 121
15.05 254.519 1.011 133 117 117
11.939 251.535 1.116 161 158 177
12.314 251.034 1.119 162 156 168
11.057 250.111 1.09 51 55 67
9.883 249.054 1.096 72 77 96
0.309 255.961 2.219 152 126 137
0.307 255.943 2.079 156 167 185
0.305 255.924 1.939 168 123 130
0.302 255.932 1.798 183 176 192
-9.438 251.974 1.73 137 123 122
-9.482 252.842 1.696 148 134 134
-9.209 253.438 1.674 144 133 131
-8.791 253.893 1.658 137 121 121
-8.465 254.482 1.635 137 132 139
0.298 255.903 1.519 169 180 202
-8.17 248.777 1.748 130 114 115
-7.843 249.232 1.735 145 129 130
-7.844 249.828 1.709 145 129 129
-7.772 250.399 1.685 150 134 135
-7.679 250.989 1.659 151 135 135
-7.321 251.328 1.648 134 122 126
-6.985 251.697 1.635 142 132 140
0.296 255.878 1.381 27 31 42
-5.65 246.236 1.826 140 124 127
-5.78 246.68 1.802 140 125 128
-6.163 247.343 1.761 146 130 131
-5.964 247.735 1.747 145 129 132
-6.184 248.387 1.709 150 137 144
-5.834 248.569 1.708 149 134 137
-5.329 248.577 1.72 149 141 152
-6.003 249.855 1.634 139 132 140
-6.314 250.878 1.57 113 110 121
-5.972 251.175 1.559 108 106 117
-5.261 248.505 1.638 147 137 146
-5.477 249.266 1.584 113 107 117
-5.185 249.506 1.576 113 111 124
-4.81 249.635 1.576 104 102 115
-4.554 249.918 1.563 89 91 104
-4.255 250.148 1.553 86 88 101
-3.952 250.376 1.542 83 87 99
-3.862 251.021 1.496 80 84 96
-3.446 251.075 1.497 86 88 101
-3.143 251.372 1.477 83 87 99
-0.456 252.259 1.404 68 70 82
1.202 252.676 1.343 66 70 79
-4.875 245.773 1.737 148 132 133
-4.902 246.105 1.718 137 118 122
-4.954 246.476 1.694 137 123 123
-4.942 246.825 1.674 152 136 137
-4.567 246.981 1.68 157 149 164
-4.722 247.517 1.638 151 141 150
-4.314 245.169 1.739 146 130 130
-4.375 245.474 1.718 143 123 124
-4.209 245.652 1.717 137 118 120
-4.104 245.869 1.709 143 130 139
-3.981 246.076 1.702 138 134 149
-4.299 246.748 1.639 157 140 148
-4.681 247.476 1.567 143 124 128
-4.737 247.963 1.528 117 111 121
-4.504 248.177 1.521 112 110 123
-4.251 248.367 1.516 106 104 117
-3.948 248.491 1.517 94 94 104
-3.704 248.686 1.508 91 91 103
-3.486 248.926 1.494 87 87 99
-3.241 249.132 1.483 83 82 96
-3.05 249.454 1.458 90 88 101
-2.774 249.633 1.447 81 83 98
-2.523 249.882 1.428 78 80 93
-2.219 250.018 1.42 78 80 95
-1.915 250.163 1.409 71 74 89
-1.617 250.341 1.394 73 75 88
-1.269 250.342 1.395 72 74 87
-0.967 250.545 1.375 66 70 81
-0.308 250.798 1.346 69 71 83
0.036 250.856 1.337 72 72 84
0.382 250.999 1.317 71 73 85
0.735 250.928 1.318 74 74 86
1.102 251.168 1.285 68 68 80
-3.872 244.872 1.73 148 133 130
-3.794 245.129 1.719 127 107 108
-3.614 245.264 1.722 157 148 165
-3.659 245.551 1.7 136 133 144
-3.927 246.032 1.648 139 131 144
-4.255 246.708 1.577 143 124 128
-4.202 247.023 1.554 119 112 120
-4.061 247.269 1.541 116 108 119
-3.791 247.382 1.545 102 100 113
-3.594 247.57 1.538 100 98 111
-3.368 247.723 1.534 97 97 109
-3.13 247.856 1.531 87 87 99
-2.941 248.062 1.518 97 97 109
-2.753 248.282 1.503 82 81 95
-2.533 248.46 1.492 89 88 102
-2.346 248.718 1.47 84 83 99
-2.096 248.858 1.461 84 83 97
-1.843 248.999 1.451 81 80 94
-1.564 249.075 1.447 78 80 92
-1.301 249.199 1.436 71 73 86
-1.024 249.284 1.429 78 77 91
-0.763 249.461 1.41 67 71 83
-0.477 249.546 1.4 67 69 81
-0.188 249.63 1.389 63 69 81
0.107 249.679 1.38 69 71 83
0.405 249.744 1.369 67 69 81
0.709 249.837 1.353 71 74 83
1.019 249.898 1.339 72 74 86
1.332 249.923 1.328 68 71 80
-3.411 245.13 1.695 138 132 144
-3.637 245.533 1.648 132 129 140
-3.895 246.006 1.592 144 129 134
-3.811 246.322 1.572 116 108 121
-3.651 246.502 1.566 113 110 121
-3.491 246.684 1.559 104 102 113
-3.293 246.826 1.558 110 108 119
-3.113 246.985 1.552 91 91 103
-2.905 247.109 1.55 85 88 97
-2.716 247.257 1.544 92 94 109
-2.552 247.446 1.531 87 86 100
-2.375 247.625 1.518 85 85 97
-2.178 247.777 1.509 91 89 102
-2.0 247.979 1.492 90 88 101
-1.795 248.137 1.479 83 85 97
-1.558 248.228 1.474 82 82 92
-1.332 248.353 1.463 79 79 91
-1.088 248.429 1.458 75 77 90
-0.839 248.489 1.453 79 78 94
-0.599 248.59 1.442 77 78 96
-0.354 248.698 1.429 65 69 80
-0.102 248.789 1.416 67 71 83
0.157 248.852 1.406 61 69 82
0.422 248.875 1.4 66 68 80
0.689 248.968 1.384 68 72 83
0.959 248.985 1.375 69 71 83
1.23 248.972 1.37 72 72 84
1.447 249.061 1.352 71 74 81
-2.213 246.909 1.547 88 86 99
-2.065 247.084 1.533 88 87 101
-1.909 247.26 1.519 90 88 101
-1.749 247.44 1.502 86 86 98
-1.543 247.535 1.497 89 87 100
-1.354 247.676 1.484 78 77 91
-1.14 247.759 1.478 82 81 95
-0.92 247.822 1.474 74 76 88
-0.699 247.882 1.469 74 73 87
-0.482 247.971 1.459 72 74 87
-0.264 248.075 1.445 74 76 89
-0.04 248.18 1.431 60 68 79
0.195 248.224 1.423 65 67 79
0.431 248.344 1.404 69 71 84
0.672 248.263 1.41 70 70 82
0.916 248.327 1.396 64 68 77
1.097 248.3 1.395 70 70 82
1.346 248.339 1.381 70 73 82
-3.576 245.487 1.548 129 117 127
-3.469 245.672 1.541 101 93 104
-3.358 245.857 1.532 104 98 112
-3.172 246.05 1.528 105 101 115
-3.036 246.216 1.521 103 101 114
-2.885 246.369 1.515 94 92 105
-2.721 246.507 1.51 91 90 104
-2.575 246.67 1.501 86 84 97
-2.388 246.781 1.498 94 92 105
-0.191 247.573 1.458 73 77 89
0.02 247.601 1.454 67 71 82
0.227 247.706 1.437 67 69 81
0.443 247.698 1.435 61 67 79
0.66 247.756 1.423 62 65 80
0.827 247.813 1.411 68 70 82
-2.981 245.537 1.546 110 104 116
-2.813 245.71 1.542 104 100 114
-2.687 245.858 1.536 101 99 112
-2.544 245.988 1.532 100 96 111
-2.41 246.13 1.525 88 86 99
-2.281 246.28 1.515 93 90 107
-2.107 246.374 1.514 86 84 98
-1.965 246.514 1.504 89 87 101
-1.822 246.659 1.493 87 86 102
-1.69 246.834 1.475 90 88 101
-1.52 246.948 1.467 88 87 103
-1.346 247.061 1.458 85 87 100
-1.169 247.171 1.448 76 78 91
-0.968 247.22 1.446 80 79 93
-0.778 247.304 1.438 77 79 94
-0.587 247.398 1.427 73 72 86
-0.391 247.483 1.416 76 75 91
-1.611 246.291 1.508 0 0 0
-1.481 246.432 1.494 95 93 107
-1.343 246.569 1.481 87 86 102
-1.176 246.653 1.475 85 84 98
-1.018 246.763 1.464 83 85 100
-0.841 246.827 1.46 80 82 95
-0.674 246.929 1.448 0 0 0
-8.98 249.355 1.707 138 128 129
-6.127 246.907 1.782 142 123 125
-6.174 247.902 1.733 156 141 146
-4.519 243.017 3.72 55 50 57
-4.383 243.215 3.683 109 100 103
-4.535 243.017 3.667 95 85 83
-4.382 243.214 3.626 66 62 63
-4.592 243.021 3.567 86 82 81
-4.399 243.214 3.518 92 84 82
-4.595 243.02 3.51 56 49 56
-4.396 243.213 3.461 109 97 99
-4.552 243.016 3.442 40 38 41
-4.386 243.211 3.403 114 102 102
-4.546 243.507 3.449 100 98 103
-4.611 243.019 3.342 108 114 130
-4.399 243.211 3.296 95 83 83
-4.537 243.503 3.333 105 103 108
-4.623 243.019 3.288 143 146 163
-4.382 243.208 3.238 84 74 75
-4.554 243.505 3.279 76 71 77
-4.685 243.024 3.244 134 141 157
-4.404 243.21 3.188 109 97 101
-4.56 243.505 3.224 94 92 97
-4.414 243.21 3.135 110 101 104
-4.502 243.494 3.156 88 82 84
-4.415 243.209 3.027 103 92 88
-4.516 243.494 3.047 103 98 104
-4.713 243.023 3.021 76 83 93
-4.424 243.209 2.975 84 73 69
-4.507 243.492 2.991 96 90 94
-4.426 243.208 2.921 113 101 101
-4.493 243.488 2.933 131 126 130
-4.679 243.018 2.847 56 69 85
-4.446 243.209 2.817 114 109 113
-4.473 243.483 2.821 87 78 83
-4.429 243.206 2.761 99 88 86
-4.502 243.487 2.771 122 112 113
-4.452 243.209 2.711 111 101 100
-4.485 243.483 2.714 76 67 72
-4.434 243.205 2.656 129 114 117
-4.49 243.484 2.661 125 114 118
-4.438 243.204 2.55 139 123 124
-4.436 243.472 2.549 120 107 114
-4.43 243.202 2.496 104 92 92
-4.463 243.476 2.497 140 126 125
-4.427 243.201 2.443 127 109 107
-4.426 243.468 2.441 97 88 89
-4.426 243.199 2.338 121 105 108
-4.442 243.469 2.336 120 108 110
-4.334 242.774 2.289 85 89 92
-4.427 243.199 2.286 129 113 114
-4.397 243.46 2.282 85 72 79
-4.445 243.2 2.233 122 112 120
-4.398 243.46 2.229 132 122 123
-5.137 244.16 2.228 70 89 95
-17.16 237.665 2.269 111 109 122
-17.705 238.328 2.264 117 111 121
-18.415 238.993 2.259 127 127 137
-5.115 244.153 2.167 71 88 95
-4.282 242.77 2.136 78 107 111
-4.399 243.193 2.128 132 119 126
-4.387 243.456 2.124 148 135 142
-4.314 242.516 2.088 167 147 148
-4.258 242.768 2.086 60 71 77
-4.393 243.191 2.076 112 96 96
-4.375 243.453 2.072 114 100 97
-4.624 243.724 2.062 142 133 134
-4.283 242.516 2.038 145 121 119
-4.269 242.768 2.035 124 108 109
-4.748 243.012 2.017 71 92 97
-4.351 243.185 2.025 109 95 94
-4.322 243.442 2.021 83 74 75
-4.486 243.692 2.011 108 96 100
-12.19 248.099 1.678 60 67 77
-8.452 248.426 1.756 152 131 136
-8.17 248.777 1.748 153 137 137
-8.623 239.811 1.827 40 53 69
-4.241 242.515 1.989 155 136 138
-4.431 242.774 1.978 26 33 43
-4.671 243.004 1.964 106 86 87
-4.349 243.184 1.974 118 100 98
-4.297 243.437 1.97 111 95 98
-4.404 243.672 1.96 101 85 85
-4.907 244.028 1.931 112 100 102
-5.719 244.605 1.884 160 139 138
-5.624 244.864 1.879 168 148 150
-5.611 245.158 1.869 157 145 147
-5.449 245.468 1.863 141 122 124
-5.66 245.899 1.839 131 113 113
-5.65 246.236 1.826 147 131 131
-5.78 246.68 1.802 142 121 118
-4.335 241.203 1.885 135 120 117
-4.458 241.392 1.879 174 145 147
-4.986 241.571 1.849 156 131 134
-4.986 241.809 1.848 176 155 154
-4.959 242.046 1.849 146 127 129
-6.017 242.293 1.783 152 133 137
-4.224 242.514 1.889 209 191 189
-4.42 242.772 1.874 171 142 144
-4.636 243.0 1.856 45 42 53
-4.344 243.182 1.87 156 136 135
-4.269 243.43 1.868 126 110 110
-4.314 243.65 1.859 141 122 118
-4.817 244.002 1.819 128 112 113
-4.841 244.315 1.806 165 145 144
-4.863 244.577 1.795 141 123 121
-4.781 244.805 1.79 145 126 130
-4.786 245.075 1.777 145 124 123
-4.924 245.499 1.749 159 139 141
-4.875 245.773 1.737 157 138 140
-4.902 246.105 1.718 143 128 123
-4.246 242.111 1.841 181 155 156
-4.354 242.307 1.832 176 146 148
-4.04 242.515 1.852 165 139 140
-4.148 242.76 1.841 168 141 146
-4.104 242.953 1.841 179 155 155
-4.191 243.161 1.83 131 110 109
-4.191 243.415 1.823 194 166 165
-4.265 243.638 1.811 163 139 137
-4.283 243.857 1.802 144 125 121
-4.365 244.159 1.785 151 135 136
-4.438 244.417 1.769 155 136 138
-4.434 244.657 1.758 146 130 131
-4.398 244.89 1.749 153 136 142
-4.314 245.169 1.739 132 116 117
-4.375 245.474 1.718 145 129 129
-3.772 243.914 1.787 164 143 148
-3.773 244.168 1.775 145 125 124
-3.903 244.432 1.752 149 129 131
-3.851 244.63 1.745 147 128 130
-3.872 244.872 1.73 141 125 126
-8.98 249.355 1.707 144 128 128
-6.874 246.16 1.788 164 142 144
-6.127 246.907 1.782 138 118 119
-5.804 241.15 1.799 151 134 140
-5.837 241.489 1.798 152 133 139
-5.984 241.743 1.788 153 134 138
-5.331 242.073 1.826 142 126 129
-5.823 242.901 1.786 148 126 128
0.309 255.961 2.219 65 71 83
4.985 252.168 2.141 155 77 54
0.307 255.943 2.079 63 69 83
4.971 252.141 2.031 169 185 219
0.305 255.924 1.939 68 72 83
4.96 252.119 1.921 185 70 3
0.302 255.932 1.798 65 72 82
4.952 252.105 1.811 182 196 223
0.298 255.903 1.519 68 72 83
4.943 252.092 1.591 176 70 10
11.957 257.502 1.091 112 94 94
12.569 257.005 1.087 124 105 101
13.037 256.349 1.094 119 101 101
14.348 255.441 1.073 143 125 125
0.296 255.878 1.381 21 28 46
5.995 259.193 1.038 74 78 90
4.935 252.076 1.482 189 199 226
8.558 257.787 1.025 129 128 142
8.801 256.768 1.071 159 156 167
9.038 255.859 1.109 55 59 70
9.315 255.099 1.137 70 73 80
9.428 254.448 1.165 72 71 77
9.848 253.978 1.169 73 75 88
10.496 253.778 1.148 177 178 198
10.891 253.281 1.152 172 171 187
11.177 252.69 1.165 176 173 190
11.606 252.248 1.162 163 159 176
4.935 252.079 1.371 188 72 0
8.01 254.25 1.093 74 79 98
8.085 253.586 1.13 83 87 98
8.991 253.864 1.067 111 113 128
9.645 253.73 1.04 162 158 173
9.869 253.07 1.065 159 157 170
10.145 252.509 1.08 100 101 106
10.383 251.934 1.097 53 55 67
10.601 251.367 1.114 58 60 72
1.202 252.676 1.343 63 69 83
4.585 252.389 1.253 21 36 59
4.937 252.087 1.26 121 117 131
9.008 251.329 1.082 75 81 97
9.205 250.811 1.101 77 80 97
9.382 250.299 1.119 95 100 120
0.735 250.928 1.318 69 71 83
1.102 251.168 1.285 71 73 85
1.462 251.13 1.28 71 73 85
1.867 251.393 1.241 68 74 86
2.15 250.881 1.284 71 73 85
2.935 251.403 1.202 68 70 83
3.25 251.124 1.216 71 73 86
3.688 251.228 1.185 70 72 85
4.718 250.698 1.181 74 76 89
5.141 250.665 1.158 70 74 86
5.629 250.709 1.123 73 75 87
5.776 250.21 1.157 73 75 90
6.072 249.956 1.158 74 77 94
6.59 249.979 1.119 75 79 91
7.499 249.325 1.1 69 73 85
0.709 249.837 1.353 62 68 80
1.019 249.898 1.339 72 74 86
1.332 249.923 1.328 74 76 89
1.64 249.882 1.323 71 73 86
1.9 250.007 1.301 74 76 88
2.274 250.224 1.262 67 71 82
2.495 249.776 1.302 67 70 85
2.865 249.905 1.271 70 72 85
3.23 249.966 1.247 73 75 90
3.525 249.814 1.247 73 75 87
3.817 249.66 1.246 75 74 88
4.095 249.483 1.247 70 73 88
4.645 249.288 1.23 71 73 86
4.915 249.096 1.229 71 74 89
5.22 248.954 1.22 72 74 86
5.61 248.91 1.193 73 75 88
5.982 248.818 1.171 71 74 89
6.17 248.511 1.182 72 74 87
6.371 248.227 1.189 72 74 89
6.627 247.998 1.184 78 78 90
0.959 248.985 1.375 67 71 82
1.23 248.972 1.37 72 74 86
1.447 249.061 1.352 71 74 83
1.722 249.032 1.346 72 72 84
1.998 249.002 1.338 73 75 87
2.278 248.976 1.329 69 71 83
2.569 248.971 1.315 75 75 87
2.835 248.875 1.312 72 74 87
3.113 248.811 1.304 76 78 90
3.363 248.848 1.284 77 75 89
3.567 248.608 1.298 74 76 89
3.828 248.493 1.293 75 74 88
4.138 248.456 1.274 75 77 90
4.367 248.277 1.275 72 74 86
4.618 248.13 1.27 72 74 87
4.934 248.062 1.25 73 77 89
5.105 247.921 1.249 71 75 87
5.312 247.71 1.25 71 74 89
5.617 247.597 1.232 70 72 87
5.756 247.318 1.243 73 75 90
0.916 248.327 1.396 69 71 83
1.097 248.3 1.395 65 67 79
1.346 248.339 1.381 70 74 85
1.592 248.321 1.375 67 69 81
1.84 248.303 1.367 74 76 89
2.082 248.251 1.362 74 74 86
2.344 248.26 1.347 74 74 86
2.518 248.184 1.347 72 74 86
2.758 248.112 1.342 75 74 88
2.996 248.029 1.337 62 65 80
3.197 247.868 1.343 77 76 90
3.433 247.78 1.336 74 73 87
3.714 247.759 1.316 74 74 86
3.88 247.663 1.313 71 73 88
4.139 247.585 1.3 62 71 88
4.382 247.474 1.29 78 80 95
4.543 247.26 1.298 81 79 93
4.798 247.154 1.284 77 76 92
4.981 246.965 1.284 73 75 90
5.11 246.816 1.285 72 74 89
1.046 247.778 1.41 63 71 82
1.264 247.745 1.407 66 68 80
1.493 247.776 1.394 71 73 85
1.703 247.695 1.396 70 72 84
1.93 247.688 1.386 73 72 86
2.1 247.671 1.379 69 71 84
2.313 247.602 1.376 72 72 84
2.532 247.544 1.37 71 73 85
2.751 247.482 1.363 79 78 94
2.95 247.373 1.363 75 77 90
3.085 247.267 1.366 67 69 84
3.3 247.188 1.359 67 70 85
4.995 252.221 0.91 76 80 91
-17.16 237.665 2.269 99 99 101
-17.705 238.328 2.264 126 116 124
-18.415 238.993 2.259 130 125 132
14.348 255.441 1.073 131 113 111
11.177 252.69 1.165 164 167 186
11.606 252.248 1.162 163 162 176
10.601 251.367 1.114 59 63 74
9.382 250.299 1.119 119 124 143
-14.16 255.144 2.583 70 76 90
-14.151 255.132 2.394 70 77 93
0.431 263.706 2.052 156 165 180
-14.149 255.127 2.206 74 77 92
0.427 263.686 1.844 121 129 142
-14.174 255.141 2.017 75 77 90
0.423 263.687 1.637 153 140 158
-10.047 252.533 1.775 168 154 153
-9.63 252.899 1.766 156 140 140
-9.452 253.506 1.745 146 128 128
-9.424 254.319 1.714 132 120 120
-10.739 259.332 1.504 113 102 108
0.416 263.677 1.221 71 73 85
-9.098 249.901 1.762 133 119 118
-8.64 250.127 1.763 136 122 122
-8.398 250.501 1.753 142 124 122
-8.083 250.817 1.746 137 121 122
-7.833 251.19 1.734 143 124 126
-7.908 251.908 1.701 142 128 128
-7.815 252.509 1.674 148 130 128
-7.992 253.491 1.625 137 134 141
-8.996 255.696 1.506 109 106 115
-6.94 248.448 1.778 139 117 119
-7.077 248.976 1.75 147 128 130
-7.012 249.389 1.733 101 87 87
-6.617 249.536 1.736 145 129 132
-6.609 250.026 1.712 149 133 134
-6.179 250.123 1.717 149 143 155
-6.847 251.42 1.632 143 136 144
-7.538 252.933 1.535 115 112 121
-4.967 254.323 1.485 78 84 96
0.206 255.822 1.353 66 70 81
-6.092 250.029 1.634 147 137 146
-6.293 250.795 1.581 119 113 123
-6.098 251.172 1.562 112 109 120
-5.887 251.55 1.542 104 104 116
-5.248 252.047 1.522 85 87 99
-4.08 252.408 1.514 82 84 99
-3.775 252.705 1.495 82 84 97
-5.905 247.325 1.716 138 119 121
-5.765 247.571 1.71 139 123 123
-5.977 248.166 1.666 142 127 130
-5.619 248.27 1.676 149 136 143
-5.237 248.329 1.689 133 131 144
-5.568 249.035 1.63 147 137 148
-5.105 246.845 1.72 130 115 112
-5.043 247.096 1.709 140 125 128
-4.75 247.264 1.715 152 144 157
-4.75 247.573 1.694 147 136 144
-5.084 248.194 1.634 145 128 134
-5.514 248.982 1.557 140 125 130
-5.455 249.368 1.531 120 112 125
-5.252 249.624 1.52 124 120 137
-5.086 249.931 1.502 109 106 117
-4.924 250.263 1.481 96 95 109
-4.669 250.485 1.471 96 95 109
-4.386 250.668 1.465 87 89 102
-4.174 250.976 1.443 86 85 99
-3.818 251.034 1.447 83 85 100
-3.528 251.213 1.437 81 83 96
-3.126 251.352 1.431 85 85 97
-2.846 251.326 1.438 78 80 93
-2.571 251.559 1.419 73 75 88
-2.24 251.636 1.414 71 73 85
-1.929 251.789 1.4 73 75 87
-1.605 251.912 1.388 68 72 84
-0.94 252.151 1.361 69 73 84
-0.595 252.244 1.348 71 73 85
-0.247 252.478 1.32 68 70 82
0.117 252.558 1.305 73 73 85
0.487 252.633 1.29 70 73 82
-4.509 246.244 1.737 173 152 157
-4.35 246.393 1.739 142 125 131
-4.259 246.581 1.732 148 142 156
-4.45 247.043 1.688 145 132 141
-4.715 247.543 1.636 146 130 130
-4.958 248.082 1.581 136 123 130
-4.833 248.335 1.568 123 117 129
-4.708 248.597 1.553 121 115 129
-4.534 248.818 1.543 103 101 114
-4.391 249.082 1.527 97 97 109
-4.209 249.31 1.514 88 90 103
-4.045 249.576 1.496 93 92 106
-3.794 249.724 1.492 88 90 103
-3.582 249.937 1.478 88 90 103
-3.317 250.064 1.473 85 89 101
-2.987 250.221 1.466 87 87 99
-2.715 250.329 1.461 81 83 96
-2.505 250.394 1.458 81 80 94
-2.207 250.419 1.46 76 74 88
-1.959 250.605 1.442 73 75 87
-1.687 250.73 1.431 74 73 87
-1.396 250.781 1.426 69 73 84
-1.12 250.94 1.408 69 71 84
-0.845 251.198 1.378 62 69 87
-0.535 251.2 1.375 65 69 81
-0.23 251.375 1.351 64 68 79
0.085 251.367 1.346 70 72 84
0.4 251.352 1.341 70 72 84
0.724 251.415 1.326 69 72 81
-3.981 246.172 1.73 143 139 154
-4.188 246.533 1.689 147 137 146
-4.428 247.025 1.634 133 116 124
-4.579 247.433 1.592 140 125 128
-4.431 247.622 1.586 124 116 127
-4.279 247.809 1.58 113 107 119
-4.16 248.031 1.567 106 104 115
-4.022 248.243 1.556 108 105 116
-3.852 248.423 1.548 94 93 107
-3.712 248.648 1.532 91 90 104
-3.52 248.812 1.525 93 93 105
-3.302 248.938 1.521 97 95 108
-3.128 249.141 1.506 84 86 98
-2.867 249.331 1.495 76 82 94
-2.608 249.381 1.497 84 86 99
-2.382 249.501 1.489 82 81 95
-2.181 249.507 1.493 83 85 98
-1.955 249.63 1.483 77 79 92
-1.723 249.745 1.473 74 76 89
-1.484 249.844 1.463 70 72 85
-1.234 249.91 1.457 75 75 87
-0.992 250.04 1.441 67 69 81
-0.739 250.136 1.428 65 67 79
-0.483 250.297 1.406 65 72 82
-0.214 250.343 1.397 70 73 80
0.061 250.434 1.381 66 70 82
0.337 250.426 1.376 66 68 80
0.619 250.47 1.363 69 71 83
-2.983 248.43 1.531 89 91 104
-2.758 248.607 1.52 85 89 101
-2.553 248.707 1.516 83 82 96
-2.354 248.818 1.51 86 85 99
-2.132 248.879 1.509 82 81 95
-1.967 248.921 1.508 80 82 95
-1.766 249.036 1.498 78 82 94
-1.544 249.087 1.495 75 79 91
-1.336 249.196 1.483 73 75 88
-1.126 249.325 1.468 73 72 86
-0.899 249.382 1.461 72 74 87
-0.673 249.475 1.448 68 70 82
-0.443 249.593 1.431 62 70 81
-0.204 249.701 1.413 52 68 84
0.041 249.694 1.41 67 71 82
0.291 249.757 1.396 66 68 81
0.538 249.74 1.391 72 74 86
0.725 249.732 1.386 67 70 85
-4.165 246.515 1.589 137 120 128
-4.236 246.882 1.551 120 112 125
-4.115 247.06 1.545 108 102 114
-3.984 247.23 1.539 118 112 124
-3.832 247.382 1.536 107 105 118
-3.715 247.57 1.526 111 107 121
-3.585 247.75 1.515 96 95 109
-3.45 247.93 1.505 94 93 107
-3.303 248.101 1.494 94 93 107
-3.147 248.267 1.484 94 92 106
-0.829 248.891 1.471 72 74 87
-0.62 248.942 1.464 70 74 86
-0.409 249.006 1.453 66 68 81
-0.194 249.084 1.439 65 67 80
0.027 249.147 1.426 50 64 77
0.249 249.153 1.42 66 68 81
-3.611 246.905 1.552 103 101 114
-3.477 247.046 1.549 107 103 117
-3.367 247.211 1.54 98 98 110
-3.264 247.389 1.527 95 93 107
-3.133 247.543 1.519 96 88 101
-3.006 247.706 1.507 96 98 111
-2.841 247.821 1.503 87 86 102
-2.699 247.974 1.492 89 87 101
-2.501 248.143 1.48 93 92 106
-2.318 248.237 1.476 82 84 97
-2.134 248.329 1.472 86 85 101
-1.944 248.407 1.468 84 83 99
-1.787 248.428 1.47 78 77 91
-1.597 248.502 1.465 85 81 96
-1.409 248.591 1.456 77 74 91
-1.225 248.706 1.442 78 78 90
-1.022 248.756 1.436 77 76 92
-2.744 247.357 1.522 0 0 0
-2.607 247.481 1.515 87 87 99
-2.47 247.61 1.506 85 83 96
-2.292 247.767 1.494 96 92 107
-2.128 247.858 1.49 92 88 102
-1.962 247.947 1.485 96 92 106
-1.775 247.987 1.487 86 84 98
-1.659 248.078 1.477 87 84 101
-1.468 248.098 1.48 0 0 0
-9.9 253.968 1.724 147 128 124
-8.206 251.544 1.712 143 127 127
-4.497 243.058 3.553 78 76 79
-4.382 243.264 3.506 101 95 97
-4.569 243.476 3.553 116 102 101
-4.51 243.48 3.485 112 113 118
-4.457 243.064 3.44 80 74 76
-4.396 243.261 3.412 108 102 106
-4.497 243.056 3.401 82 77 74
-4.38 243.262 3.359 82 77 74
-4.524 243.478 3.389 93 93 91
-4.514 243.053 3.355 117 102 95
-4.42 243.256 3.321 114 104 105
-4.474 243.482 3.326 131 134 143
-4.565 243.043 3.318 102 96 96
-4.403 243.258 3.268 110 104 104
-4.514 243.478 3.287 63 58 64
-4.632 243.03 3.233 122 114 112
-4.396 243.258 3.171 94 85 88
-4.507 243.478 3.188 120 117 124
-4.625 243.031 3.181 92 86 86
-4.411 243.256 3.126 91 87 88
-4.482 243.479 3.134 72 73 77
-4.595 243.036 3.125 95 85 83
-4.403 243.257 3.077 84 75 80
-4.48 243.479 3.085 90 91 96
-4.412 243.255 3.032 78 69 70
-4.472 243.479 3.036 50 45 52
-4.613 243.032 3.029 83 75 73
-4.582 243.037 2.974 100 95 101
-4.411 243.254 2.937 128 116 116
-4.506 243.475 2.947 81 77 78
-4.39 243.257 2.887 109 100 103
-4.444 243.48 2.889 113 110 119
-4.631 243.027 2.884 126 117 120
-4.425 243.251 2.846 106 92 91
-4.462 243.478 2.845 70 61 64
-4.426 243.25 2.753 123 111 113
-4.463 243.477 2.752 79 74 78
-4.42 243.251 2.706 115 105 106
-4.475 243.476 2.707 147 137 138
-4.402 243.253 2.658 138 122 123
-4.462 243.476 2.659 100 93 100
-4.407 243.252 2.612 99 87 87
-4.438 243.478 2.61 135 123 127
-4.403 243.252 2.52 142 126 127
-4.463 243.475 2.52 127 118 123
-4.423 243.248 2.476 103 88 91
-4.449 243.475 2.473 97 88 93
-4.403 243.251 2.429 118 100 100
-4.457 243.474 2.428 73 64 67
-4.286 242.67 2.342 79 103 113
-4.401 243.25 2.338 140 126 126
-4.438 243.475 2.336 131 119 123
-14.16 255.144 2.583 168 179 197
-4.276 242.673 2.297 75 92 102
-4.396 243.25 2.292 135 117 115
-4.404 243.478 2.289 126 115 121
-4.667 243.646 2.293 130 124 134
-14.151 255.132 2.394 170 72 0
-4.288 242.669 2.251 141 126 133
-4.42 243.247 2.247 140 124 125
-4.41 243.477 2.244 108 96 96
-4.662 243.646 2.245 90 80 88
-5.262 244.105 2.247 136 142 156
-14.149 255.127 2.206 170 186 219
-4.334 242.703 2.206 145 125 126
-4.374 243.253 2.201 136 121 126
-4.37 243.48 2.199 125 109 112
-4.499 243.653 2.197 166 155 161
-5.104 244.097 2.193 72 92 93
-14.174 255.141 2.017 194 145 141
-4.265 242.675 2.115 85 110 115
-4.391 243.25 2.11 127 114 123
-4.369 243.479 2.109 92 80 82
-4.493 243.652 2.105 94 83 89
-5.103 244.095 2.088 167 147 148
-4.242 242.681 2.07 55 69 72
-4.661 243.015 2.058 129 113 116
-4.349 243.255 2.066 113 99 99
-4.333 243.482 2.065 147 132 137
-4.451 243.654 2.06 122 107 112
-11.966 247.372 1.769 19 40 67
-12.197 247.999 1.746 43 56 73
-8.378 248.35 1.835 148 135 142
-8.904 249.25 1.791 152 138 138
-9.098 249.901 1.762 150 134 137
-8.64 250.127 1.763 139 125 125
-9.317 241.649 1.827 81 81 93
-4.568 243.032 2.013 142 123 125
-4.336 243.256 2.022 123 103 105
-4.297 243.484 2.022 96 84 86
-4.408 243.655 2.016 114 102 106
-10.002 244.951 1.773 75 64 62
-7.778 246.13 1.833 161 151 162
-7.069 246.241 1.856 174 153 172
-8.022 246.944 1.799 156 136 138
-7.369 247.046 1.819 158 133 136
-6.781 247.127 1.837 154 136 136
-7.126 247.668 1.805 142 121 120
-6.935 247.944 1.8 150 130 131
-6.94 248.448 1.778 145 126 128
-6.095 242.016 1.82 147 131 134
-6.185 242.264 1.817 146 131 136
-6.274 242.581 1.814 157 140 146
-5.892 243.948 1.832 141 129 131
-4.903 244.083 1.891 133 111 113
-5.968 244.442 1.819 165 144 143
-5.648 244.645 1.834 175 153 155
-5.304 244.82 1.851 159 138 135
-5.389 245.124 1.837 147 131 134
-5.371 245.356 1.831 141 125 126
-5.339 245.586 1.825 149 135 135
-5.515 245.899 1.803 180 159 158
-5.57 246.254 1.785 149 131 131
-5.594 246.543 1.771 141 121 120
-5.917 247.01 1.732 179 155 153
-5.905 247.325 1.716 141 125 128
-5.765 247.571 1.71 167 145 147
-5.372 242.709 1.812 96 114 118
-4.663 243.88 1.86 135 120 127
-4.853 244.08 1.844 196 168 167
-4.941 244.288 1.834 165 134 131
-4.875 244.535 1.833 155 133 135
-4.825 244.73 1.831 142 122 124
-4.755 244.92 1.831 165 143 145
-4.829 245.201 1.816 148 123 126
-4.919 245.447 1.801 155 129 128
-4.944 245.683 1.789 149 127 129
-4.957 245.984 1.775 152 133 139
-5.019 246.261 1.757 146 136 144
-5.092 246.561 1.737 145 130 127
-5.105 246.845 1.72 137 119 119
-4.512 245.06 1.795 169 147 150
-4.45 245.291 1.79 152 136 139
-4.514 245.52 1.775 169 145 143
-4.578 245.761 1.758 152 132 133
-4.512 246.012 1.75 147 132 137
-4.509 246.244 1.737 133 118 121
-7.249 247.356 1.812 150 130 131
-5.317 242.491 1.814 161 135 136
0.431 263.706 2.052 68 72 83
0.427 263.686 1.844 70 73 90
0.423 263.687 1.637 192 176 179
0.416 263.677 1.221 191 188 207
11.218 258.599 1.138 137 124 133
13.001 258.245 1.079 107 88 92
13.414 257.502 1.09 112 98 97
13.723 256.69 1.107 135 117 115
13.884 255.789 1.132 113 95 93
8.163 259.464 1.03 133 120 127
8.413 258.425 1.074 156 154 165
8.638 257.466 1.115 60 61 66
8.849 256.587 1.15 68 70 82
9.079 255.815 1.178 76 76 88
9.361 255.168 1.196 81 83 98
10.019 254.971 1.174 180 179 197
10.036 254.31 1.203 176 177 195
10.598 254.002 1.188 176 173 192
10.962 253.499 1.191 167 163 180
0.206 255.822 1.353 59 65 77
9.249 255.035 1.054 157 151 161
9.384 254.498 1.077 150 142 153
9.617 253.879 1.097 63 61 72
9.852 253.296 1.114 65 72 90
10.09 252.74 1.127 73 75 87
5.444 253.582 1.214 208 209 237
5.884 253.401 1.204 74 76 89
8.705 252.209 1.109 81 88 106
8.85 251.66 1.131 115 120 139
0.117 252.558 1.305 71 73 86
0.487 252.633 1.29 71 73 85
0.873 252.767 1.266 69 72 81
1.248 252.733 1.259 69 73 84
1.619 252.666 1.253 73 75 87
2.361 252.528 1.239 71 73 86
2.717 252.402 1.235 75 77 90
2.943 252.194 1.245 70 72 85
3.381 252.279 1.215 69 72 87
4.918 251.864 1.163 81 81 93
5.2 251.575 1.169 75 77 89
5.429 251.225 1.182 76 78 90
5.861 251.143 1.158 70 72 87
6.257 250.993 1.14 77 79 92
6.388 250.695 1.153 72 76 88
6.755 250.499 1.138 73 76 91
0.085 251.367 1.346 59 67 80
0.4 251.352 1.341 70 72 85
0.724 251.415 1.326 72 74 86
1.033 251.326 1.326 74 74 86
1.351 251.303 1.318 72 72 84
1.606 251.347 1.303 71 73 86
1.908 251.231 1.303 64 70 82
2.239 251.213 1.29 80 82 94
2.555 251.136 1.282 75 77 90
2.898 251.114 1.266 70 72 85
3.216 251.017 1.258 73 75 87
3.499 250.843 1.258 71 73 88
3.805 250.714 1.251 71 73 86
4.096 250.555 1.246 72 74 89
4.36 250.502 1.233 76 78 91
4.635 250.309 1.23 71 73 86
4.898 250.099 1.229 74 76 89
5.287 250.035 1.202 73 75 90
5.608 249.873 1.189 72 74 87
5.84 249.614 1.19 74 73 87
6.082 249.364 1.188 74 73 87
0.061 250.434 1.381 59 69 79
0.337 250.426 1.376 66 70 81
0.619 250.47 1.363 70 69 83
0.891 250.403 1.362 72 74 86
1.1 250.389 1.356 73 75 87
1.375 250.341 1.351 75 77 90
1.667 250.353 1.337 72 74 87
1.939 250.274 1.333 76 75 89
2.258 250.325 1.31 67 73 87
2.447 250.026 1.333 86 89 108
2.757 250.028 1.314 75 75 87
3.001 250.037 1.297 74 76 89
3.267 249.919 1.292 78 77 91
3.531 249.793 1.286 74 74 86
3.755 249.602 1.288 75 74 88
4.034 249.492 1.277 73 75 90
4.288 249.339 1.271 72 74 89
4.521 249.158 1.268 71 74 89
4.688 249.012 1.266 72 75 90
4.926 248.832 1.26 70 72 85
5.166 248.649 1.253 71 73 86
0.291 249.757 1.396 66 70 82
0.538 249.74 1.391 69 72 81
0.725 249.732 1.386 69 73 84
0.974 249.707 1.38 74 73 87
1.219 249.659 1.376 72 74 89
1.464 249.611 1.371 75 75 87
1.703 249.536 1.368 72 74 87
1.936 249.444 1.366 71 73 86
2.132 249.431 1.356 70 72 87
2.375 249.357 1.349 74 74 86
2.634 249.308 1.337 72 74 87
2.791 249.064 1.354 111 113 134
3.072 249.044 1.335 73 77 89
3.32 248.955 1.324 77 79 91
3.492 248.863 1.32 80 79 93
3.688 248.694 1.32 74 76 89
3.961 248.617 1.303 82 81 95
4.14 248.423 1.305 71 69 83
4.326 248.239 1.304 74 76 91
4.584 248.12 1.288 71 73 88
0.249 249.153 1.42 60 66 78
0.418 249.161 1.414 64 68 80
0.643 249.156 1.407 61 67 81
0.868 249.14 1.401 71 73 85
1.085 249.074 1.401 71 73 86
1.304 249.027 1.396 75 74 88
1.463 248.97 1.396 74 74 86
1.694 248.949 1.385 75 73 87
1.904 248.864 1.383 76 75 89
2.114 248.779 1.38 77 77 89
2.325 248.695 1.375 82 80 91
2.525 248.586 1.373 81 79 93
2.697 248.542 1.364 66 69 84
2.914 248.455 1.356 75 77 90
14.445 256.267 1.09 128 112 115
10.333 254.616 1.174 168 164 179
13.414 257.502 1.09 93 84 89
13.723 256.69 1.107 129 113 113
13.884 255.789 1.132 148 133 128
10.598 254.002 1.188 158 156 170
10.962 253.499 1.191 161 160 176
10.09 252.74 1.127 60 64 75
8.85 251.66 1.131 103 110 128
14.445 256.267 1.09 122 108 107
-14.259 255.177 2.897 141 148 167
-14.169 255.101 2.542 73 75 90
-14.169 255.096 2.367 88 97 114
-14.158 255.084 2.192 72 77 96
-14.174 255.09 2.017 70 76 90
-10.083 254.068 1.75 141 127 126
-9.89 254.646 1.728 146 130 130
-10.137 255.759 1.681 141 125 126
-9.955 257.497 1.608 132 126 136
-8.855 250.635 1.788 137 121 122
-8.613 250.967 1.78 137 121 122
-8.605 251.486 1.758 147 131 134
-8.554 252.003 1.736 144 125 127
-8.427 252.483 1.716 146 130 130
-8.338 253.031 1.691 149 130 132
-7.832 253.151 1.693 151 147 162
-8.714 254.945 1.592 134 127 134
-1.439 260.874 1.236 68 71 80
-7.412 249.262 1.793 139 121 119
-7.646 249.815 1.76 152 136 136
-7.595 250.211 1.743 138 122 125
-7.551 250.634 1.723 154 139 142
-7.55 251.119 1.699 144 128 129
-6.677 250.811 1.737 153 145 156
-6.984 251.624 1.685 146 141 148
-7.714 253.014 1.591 136 125 131
-7.716 253.713 1.55 112 107 114
-7.508 254.408 1.513 102 102 114
-6.332 250.479 1.682 148 138 146
-6.905 251.538 1.599 127 115 119
-6.82 252.002 1.571 112 109 120
-6.533 252.257 1.562 110 108 119
-6.044 252.401 1.564 95 97 110
-5.835 252.765 1.543 95 95 107
-5.437 252.849 1.545 85 87 100
-5.282 253.348 1.511 83 87 99
-4.999 253.659 1.492 81 83 98
-4.511 253.545 1.507 79 83 95
-4.215 253.845 1.487 82 86 98
-3.874 254.057 1.472 76 78 91
-3.494 254.166 1.465 72 75 90
-0.878 255.374 1.348 71 71 83
-0.007 255.557 1.317 69 73 84
-6.592 248.669 1.701 144 130 130
-6.55 249.071 1.681 149 136 143
-6.334 249.276 1.679 170 156 173
-6.312 249.631 1.658 157 140 146
-5.936 249.699 1.669 148 138 149
-5.848 248.22 1.701 134 117 123
-5.574 248.41 1.705 145 126 130
-5.293 248.506 1.714 149 141 154
-5.526 248.997 1.668 141 129 141
-5.867 249.637 1.605 142 129 136
-6.182 250.331 1.538 134 122 132
-6.096 250.694 1.514 108 102 114
-5.841 250.893 1.509 110 107 118
-5.598 251.103 1.502 107 105 118
-5.312 251.393 1.488 93 93 105
-5.051 251.586 1.48 85 87 99
-4.722 251.669 1.482 91 89 103
-4.515 251.955 1.462 84 86 99
-4.283 252.219 1.443 83 87 99
-3.997 252.391 1.433 88 86 99
-3.69 252.518 1.426 82 84 97
-3.391 252.671 1.415 78 80 95
-3.113 252.906 1.395 73 77 89
-2.752 252.865 1.401 75 75 87
-2.463 253.11 1.378 63 69 81
-2.129 253.182 1.37 65 69 81
-1.811 253.385 1.348 66 68 80
-1.479 253.586 1.325 69 71 83
-1.214 253.612 1.319 68 70 82
-0.861 253.787 1.296 68 70 82
-0.493 253.988 1.269 70 73 82
-0.136 253.777 1.283 73 73 83
-5.068 247.509 1.737 142 123 125
-4.915 247.657 1.738 144 138 152
-5.001 247.958 1.712 128 124 138
-5.205 248.439 1.665 142 131 145
-5.505 248.978 1.606 136 119 125
-5.609 249.409 1.566 125 115 124
-5.465 249.646 1.555 121 115 125
-5.335 249.904 1.54 116 110 122
-5.134 250.093 1.533 111 109 122
-4.946 250.302 1.524 99 95 109
-4.652 250.488 1.519 93 93 105
-4.446 250.679 1.509 84 83 97
-4.21 250.826 1.503 83 84 102
-3.982 250.99 1.494 83 82 96
-3.754 251.159 1.483 84 86 99
-3.527 251.341 1.47 86 86 98
-3.284 251.499 1.459 80 84 96
-3.065 251.739 1.437 81 80 96
-2.786 251.828 1.431 73 75 88
-2.509 251.927 1.423 73 75 88
-2.224 251.997 1.417 75 74 88
-1.938 252.066 1.409 68 71 80
-1.671 252.296 1.383 58 66 79
-1.455 252.416 1.368 57 66 81
-1.151 252.457 1.36 70 70 82
-0.845 252.532 1.347 71 73 85
-0.534 252.588 1.335 69 71 83
-0.232 252.432 1.346 69 71 83
0.069 252.374 1.345 70 72 84
-4.762 247.564 1.705 150 140 151
-4.973 247.938 1.662 135 127 142
-5.173 248.414 1.61 150 129 134
-5.174 248.71 1.586 117 107 116
-5.083 248.947 1.572 115 109 121
-4.909 249.114 1.568 115 111 125
-4.777 249.324 1.557 111 111 123
-4.616 249.508 1.549 106 104 115
-4.442 249.682 1.541 99 97 111
-4.205 249.876 1.534 105 103 116
-3.993 250.0 1.53 90 92 105
-3.81 250.169 1.52 87 87 99
-3.596 250.29 1.515 89 89 101
-3.426 250.502 1.497 87 85 99
-3.203 250.617 1.49 91 89 102
-3.003 250.794 1.475 85 85 97
-2.776 250.914 1.466 80 79 95
-2.521 250.957 1.465 77 79 92
-2.28 251.041 1.458 74 76 88
-2.06 251.233 1.437 71 73 86
-1.802 251.273 1.433 75 73 87
-1.627 251.431 1.413 67 71 83
-1.366 251.493 1.404 70 72 85
-1.109 251.682 1.378 52 68 84
-0.833 251.582 1.387 65 69 81
-0.559 251.73 1.364 62 70 83
-0.287 251.67 1.365 66 70 81
-0.019 251.597 1.367 69 71 83
-3.291 249.74 1.531 92 90 104
-3.137 249.923 1.515 88 88 100
-2.951 250.054 1.505 84 84 96
-2.758 250.177 1.495 82 84 97
-2.564 250.309 1.483 91 91 103
-2.342 250.366 1.48 82 82 94
-2.124 250.437 1.475 72 76 88
-1.907 250.521 1.466 74 76 88
-1.686 250.595 1.457 80 79 93
-1.528 250.716 1.441 70 72 85
-1.299 250.791 1.43 70 70 82
-1.064 250.845 1.421 69 73 84
-0.826 250.964 1.402 51 67 83
-0.582 250.962 1.398 72 74 86
-0.34 250.92 1.398 61 69 82
-0.1 250.885 1.396 68 70 82
0.142 250.868 1.39 68 68 80
-4.906 247.891 1.565 129 110 116
-4.794 248.132 1.553 119 115 129
-4.698 248.325 1.543 117 114 125
-4.58 248.504 1.535 120 114 128
-4.442 248.666 1.53 108 105 116
-4.329 248.857 1.518 97 97 109
-4.215 249.053 1.504 97 96 110
-4.028 249.169 1.504 96 94 107
-3.821 249.347 1.496 89 89 101
-3.654 249.489 1.488 91 89 102
-3.477 249.62 1.481 84 83 97
-1.035 250.321 1.436 65 67 80
-0.818 250.335 1.432 64 66 81
-0.598 250.408 1.417 51 62 80
-0.382 250.345 1.421 67 71 82
-4.205 248.174 1.55 103 99 113
-4.093 248.333 1.543 108 102 116
-3.978 248.492 1.534 95 94 108
-3.852 248.644 1.526 95 93 107
-3.712 248.781 1.52 102 100 114
-3.502 248.91 1.518 101 97 111
-3.344 249.025 1.513 89 87 101
-3.19 249.148 1.506 83 81 94
-3.028 249.259 1.499 98 96 110
-2.909 249.463 1.476 90 89 103
-2.719 249.532 1.475 79 81 94
-2.551 249.656 1.463 83 84 102
-2.383 249.791 1.449 86 85 99
-2.178 249.825 1.449 80 82 95
-1.986 249.9 1.442 76 75 89
-1.793 249.984 1.432 72 71 87
-1.647 250.05 1.424 79 78 94
-1.455 250.183 1.404 74 76 91
-1.246 250.238 1.395 75 79 90
-2.991 248.82 1.515 0 0 0
-2.845 248.929 1.508 99 93 107
-2.707 249.058 1.496 88 86 100
-2.545 249.144 1.491 91 89 103
-2.382 249.23 1.485 84 83 97
-2.22 249.325 1.475 0 0 0
-9.228 250.888 1.77 143 128 131
-8.383 253.773 1.655 152 145 161
-7.282 251.388 1.691 146 130 131
-14.259 255.177 2.897 162 115 133
-14.169 255.101 2.542 173 186 218
-14.169 255.096 2.367 172 70 0
-14.158 255.084 2.192 165 179 214
-5.297 243.924 2.208 125 142 152
-5.164 244.156 2.206 132 118 115
-14.174 255.09 2.017 145 88 77
-5.147 244.159 2.111 166 142 142
-12.418 248.648 1.764 62 72 84
-9.071 249.818 1.815 152 133 135
-9.097 250.303 1.796 130 118 118
-8.855 250.635 1.788 125 107 107
-8.613 250.967 1.78 143 124 126
-10.514 247.635 1.739 75 79 91
-8.487 248.195 1.798 152 132 134
-8.388 248.532 1.789 147 128 132
-7.519 248.493 1.821 172 150 153
-7.521 248.854 1.807 143 123 124
-7.412 249.262 1.793 151 129 131
-7.646 249.815 1.76 148 130 128
-8.696 242.824 1.705 70 72 85
-8.922 243.215 1.694 128 113 110
-6.976 244.416 1.811 151 152 172
-7.25 244.726 1.792 50 56 72
-6.531 244.955 1.834 190 169 166
-6.628 245.26 1.824 165 141 137
-5.962 245.466 1.861 214 190 188
-7.601 245.927 1.751 163 139 139
-6.386 245.969 1.824 158 136 138
-6.856 246.366 1.785 167 143 143
-6.647 246.584 1.791 170 144 147
-6.61 246.838 1.784 173 149 147
-6.536 247.082 1.779 163 139 137
-6.549 247.43 1.764 158 137 134
-6.643 247.757 1.745 164 140 138
-6.491 247.982 1.742 148 126 128
-6.545 248.318 1.722 155 136 140
-6.592 248.669 1.701 151 130 135
-6.55 249.071 1.681 154 142 144
-5.667 244.306 1.838 72 63 80
-5.662 244.518 1.838 149 124 128
-5.378 244.993 1.856 157 134 140
-5.364 245.187 1.854 150 127 133
-5.378 245.381 1.85 162 137 140
-5.34 245.621 1.848 167 141 144
-5.545 245.846 1.827 176 156 158
-5.505 246.045 1.824 156 130 131
-5.565 246.32 1.811 154 126 125
-5.63 246.555 1.798 160 130 130
-5.834 246.847 1.772 154 128 127
-5.904 247.175 1.753 177 153 153
-5.817 247.391 1.748 146 128 126
-5.754 247.618 1.741 157 137 138
-5.871 247.948 1.715 146 126 128
-5.848 248.22 1.701 145 129 132
-5.141 246.168 1.798 165 139 140
-5.178 246.424 1.785 174 145 150
-5.211 246.638 1.773 159 133 134
-5.294 246.88 1.756 158 132 135
-5.232 247.131 1.747 153 131 133
-5.243 247.365 1.733 137 118 120
-5.068 247.509 1.737 144 128 128
-9.228 250.888 1.77 139 123 123
-8.851 249.15 1.749 157 138 140
-7.14 245.002 1.796 159 135 135
-7.329 245.273 1.781 152 132 131
-7.501 245.559 1.765 153 133 132
-6.932 246.114 1.787 169 145 145
0.502 256.002 2.414 64 70 84
5.064 252.188 2.323 177 180 199
0.8 263.806 2.194 183 186 219
0.488 255.912 2.186 30 33 48
5.015 252.131 2.132 152 146 158
0.788 263.7 1.999 171 188 208
0.485 255.9 2.072 65 69 81
4.992 252.103 2.038 106 102 116
0.783 263.674 1.805 172 77 13
0.479 255.863 1.96 67 73 87
4.983 252.093 1.944 82 89 108
0.778 263.652 1.61 185 197 219
0.475 255.849 1.847 68 74 88
4.984 252.095 1.85 81 80 96
12.92 256.729 1.508 131 146 167
0.771 263.642 1.222 167 186 216
0.471 255.846 1.621 69 79 106
7.591 262.47 1.096 113 108 114
4.97 252.08 1.662 116 116 140
12.828 258.761 1.057 116 100 101
12.906 256.717 1.133 121 103 103
-1.439 260.874 1.236 64 72 83
0.471 255.857 1.508 72 79 105
8.014 260.019 1.013 149 118 124
8.275 259.091 1.053 178 102 78
8.477 258.172 1.093 89 88 96
8.683 257.344 1.126 64 66 78
4.959 252.066 1.569 238 229 246
9.239 256.04 1.165 73 78 98
10.296 255.33 1.145 173 172 190
10.348 254.55 1.178 168 165 182
0.465 255.82 1.397 72 76 88
6.882 256.939 1.08 71 74 89
4.958 252.066 1.474 239 236 253
8.986 255.765 1.039 154 152 166
9.235 255.159 1.059 151 145 155
9.351 254.658 1.079 84 83 91
9.565 254.074 1.097 52 54 67
-0.878 255.374 1.348 69 71 83
-0.007 255.557 1.317 71 74 83
4.636 254.287 1.242 75 77 89
4.948 252.055 1.381 172 176 201
-0.493 253.988 1.269 67 70 79
-0.136 253.777 1.283 69 71 84
0.222 253.719 1.28 70 72 84
0.585 253.697 1.271 75 75 87
0.913 253.489 1.282 60 66 78
1.269 253.442 1.273 71 73 85
1.606 253.318 1.272 71 73 86
2.013 253.412 1.245 84 86 99
2.351 253.273 1.243 75 77 90
2.65 253.278 1.227 71 73 86
3.004 253.164 1.219 70 72 85
3.312 252.951 1.222 72 74 89
4.122 252.853 1.18 75 75 87
4.527 252.767 1.161 62 68 80
4.639 252.269 1.196 74 76 89
4.917 252.019 1.197 78 78 90
6.027 252.086 1.106 76 80 91
-0.534 252.588 1.335 69 71 83
-0.232 252.432 1.346 69 73 84
0.069 252.374 1.345 72 74 86
0.39 252.452 1.326 71 73 85
0.693 252.384 1.323 73 73 83
0.989 252.291 1.322 70 72 85
1.305 252.275 1.31 73 73 85
1.523 252.191 1.309 70 72 84
1.869 252.232 1.288 72 74 87
2.154 252.094 1.287 76 75 89
2.418 251.912 1.291 70 72 85
2.754 251.88 1.274 78 77 91
3.087 251.82 1.258 73 75 88
3.374 251.669 1.253 71 73 86
3.661 251.515 1.247 70 73 88
3.949 251.495 1.228 75 77 90
4.261 251.355 1.216 73 75 88
4.735 251.387 1.175 73 75 88
4.91 251.065 1.188 74 78 90
5.092 250.764 1.198 74 76 88
5.493 250.665 1.169 74 73 87
-0.559 251.73 1.364 62 68 80
-0.287 251.67 1.365 66 68 80
-0.019 251.597 1.367 69 71 84
0.256 251.593 1.358 70 72 85
0.504 251.44 1.368 74 74 86
0.706 251.417 1.362 70 74 85
0.977 251.386 1.354 72 76 87
1.229 251.282 1.354 68 70 83
1.493 251.215 1.348 77 76 90
1.819 251.292 1.32 65 71 85
2.015 251.052 1.336 72 74 86
2.307 251.021 1.32 73 74 92
2.523 250.98 1.309 77 79 92
2.805 250.904 1.297 76 75 89
3.113 250.851 1.279 77 77 89
